# .PCD v0.7 - Point Cloud Data file format
VERSION 0.7
FIELDS x y z
SIZE 4 4 4
TYPE F F F
COUNT 1 1 1
WIDTH 1496
HEIGHT 1
VIEWPOINT 0 0 0 1 0 0 0
POINTS 1496
DATA ascii
4.2982168 -1.2392299 -3.8116107
4.7435026 -1.2525779 -3.5786455
-0.51984 -0.88970602 -3.6002259
-0.37544614 -0.73542529 -3.7749739
3.91189 -0.69744599 -3.9670486
4.276196 -0.72258002 -3.7639005
4.6200352 -0.83330089 -3.5691679
-0.16147539 -0.36405835 -3.7306821
0.20449923 -0.1035483 -3.7831507
0.61365002 -0.016756 -3.974771
3.3334968 -0.067117669 -3.905426
3.7724268 -0.22131601 -3.7918601
4.1908612 -0.34926897 -3.626555
0.41215 0.026773999 -3.6886377
0.75374573 0.10925043 -3.7203517
1.2704408 0.21594134 -3.761451
1.7497835 0.26581347 -3.7590103
2.2509778 0.26256925 -3.7635758
2.734931 0.20348769 -3.7517459
3.1964796 0.12041133 -3.7180867
3.6189201 0.068043999 -3.5818777
-4.67945 5.3610821 -3.7534013
-4.2613888 5.2107935 -3.7121458
-3.8334844 5.3567939 -3.7659311
-4.7388992 5.746634 -3.7838113
-3.5973413 5.6846352 -3.7332633
-4.7206163 6.2338743 -3.7868969
-3.5112 6.0068188 -3.803596
-3.4838514 6.3016939 -3.7409766
-5.1461091 6.7603765 -3.7641156
-4.908 6.5820603 -3.8900011
-3.6174176 6.797513 -3.7502959
-5.123117 7.124094 -3.8067515
-4.8334212 7.3830948 -3.6950097
-4.234447 7.3971648 -3.7006476
-3.8826549 7.1683078 -3.7700405
-4.6338177 7.5400343 -3.865099
-4.3560901 7.5319939 -3.9175141
1.3805751 7.8601937 -3.5813911
1.7097138 7.796525 -3.6567569
1.2946328 8.2784767 -3.6708302
1.6607207 8.2443457 -3.7643204
1.3166012 8.7652111 -3.6394815
1.5825208 8.6050854 -3.6931515
-1.7365146 -6.0897517 -3.2248819
-1.251892 -6.1631112 -3.2361212
-0.722597 -6.1632462 -3.2896402
-0.24329643 -6.1545053 -3.2187793
0.25327358 -6.1588907 -3.2644026
0.74292713 -6.1566224 -3.2105834
1.2357913 -6.1171069 -3.3007488
1.7323982 -6.1188641 -3.2397385
2.2260919 -6.0915833 -3.218389
2.733664 -6.0852623 -3.142658
3.21578 -6.0429859 -3.122416
-1.7454582 -5.7350984 -3.2093461
1.4162 -5.892756 -3.483171
1.7642725 -5.8089595 -3.4482074
2.2171667 -5.7549663 -3.4187498
2.7170918 -5.7577405 -3.3684871
3.2171702 -5.7642388 -3.2834117
3.7348747 -5.7956715 -3.1635177
4.0911212 -5.7194734 -3.0606711
-1.5971887 -5.3417225 -3.1256099
-1.2718115 -5.1725526 -3.3100097
1.8404551 -5.3545389 -3.4844286
2.2300179 -5.3315496 -3.4585452
2.7157426 -5.3269658 -3.3760324
3.2155857 -5.257112 -3.3461945
3.7157905 -5.2568531 -3.3174949
4.215724 -5.2599235 -3.2129128
4.5560541 -5.1351881 -3.1167431
-1.1376357 -4.9174461 -3.1530612
-0.73241729 -4.8148317 -3.2560334
-0.27710694 -4.6966434 -3.3207095
0.0163 -4.6827612 -3.460556
3.4145601 -4.885776 -3.4930511
3.714426 -4.887198 -3.4468231
4.2378912 -4.7698679 -3.353615
4.6410666 -4.7607188 -3.1322117
5.0104499 -4.6253862 -3.0284309
-0.16428849 -4.235003 -3.2274761
0.01265 -4.4658661 -3.467761
4.3622251 -4.4488211 -3.463891
4.7691045 -4.3799734 -3.3584476
5.10499 -4.2241344 -3.1671827
-0.20696001 -3.7363698 -3.2350709
5.173223 -3.747817 -3.2669344
-0.33457297 -3.2310624 -3.2371304
4.9355102 -3.3293319 -3.461391
5.2151694 -3.2665915 -3.2380948
-0.55329597 -2.633872 -3.1200628
-0.46297598 -2.7694812 -3.2999177
4.99793 -2.7436061 -3.497911
5.2696676 -2.7640548 -3.2372801
5.55059 -2.591176 -3.0729909
-0.65167665 -2.2417791 -3.2589166
5.2913637 -2.2646329 -3.328615
5.5775328 -2.2091658 -3.1142535
-0.77881873 -1.7465701 -3.2273121
4.9987898 -1.827221 -3.4843612
5.2855973 -1.7408949 -3.3066735
5.6208534 -1.7807509 -3.0626609
-3.0352232 -1.1644993 -3.0225277
-2.7015824 -1.2564214 -3.0403938
-2.224139 -1.1753516 -3.04285
-1.7020779 -1.111744 -3.0225091
-1.1624922 -1.1911811 -3.072489
-0.78359997 -1.2270032 -3.3093219
4.9619427 -1.1743284 -3.4668059
5.2679338 -1.2736843 -3.270757
5.5457802 -1.456336 -3.054971
-3.0554225 -0.75918972 -3.0322196
-2.7041571 -0.75471795 -3.0750737
-2.2039769 -0.752469 -3.0741327
-1.7044494 -0.749897 -3.0831499
-1.2040299 -0.74149793 -3.167505
-0.71866107 -0.6928376 -3.3596342
-0.420645 -0.55350602 -3.422781
4.8174405 -0.71064609 -3.4096634
5.2371297 -0.75225967 -3.2090881
5.5139298 -0.7233693 -3.0329845
-3.0583582 -0.25409099 -3.0344744
-2.7070246 -0.24868335 -3.0915759
-2.2062821 -0.24870402 -3.0685456
-1.7070782 -0.24178734 -3.1349058
-1.206758 -0.23314868 -3.2284863
-0.70733339 -0.22599134 -3.2917583
-0.24727923 -0.16429447 -3.3835523
4.285851 -0.15571351 -3.3940694
4.7432837 -0.27158645 -3.2788873
5.2089686 -0.29159293 -3.0960612
-3.0124099 0.035824001 -3.028661
-2.680608 0.22530811 -3.073019
-2.208205 0.25784653 -3.0960789
-1.7083571 0.25893602 -3.0754893
-1.2089791 0.26424003 -3.118216
-0.70889854 0.27043098 -3.1885517
-0.21343598 0.28660697 -3.2604198
0.23578504 0.29361099 -3.3422227
0.76692933 0.33266327 -3.3530612
1.217784 0.38543302 -3.352222
1.7000333 0.42137733 -3.3946495
2.23844 0.45439401 -3.3491263
2.7742505 0.39091861 -3.3469872
3.2886786 0.34246901 -3.2733614
3.7792897 0.23774299 -3.2881515
4.2862749 0.19360678 -3.2221553
4.7717686 0.21532698 -3.1104112
5.0437002 0.047403999 -3.027431
-2.5615249 0.61424398 -3.0263209
-2.1726937 0.66965652 -3.0366609
-1.7320857 0.6801939 -3.0328455
-1.1767967 0.64324397 -3.0343926
-0.68769383 0.74596334 -3.086688
-0.21081601 0.77592057 -3.1927557
0.30027127 0.76340026 -3.2524095
0.76849532 0.78693402 -3.2244644
1.2422507 0.79186535 -3.2376366
1.767229 0.76671773 -3.2555695
2.2865374 0.75421071 -3.1963511
2.7787519 0.73053396 -3.1381211
3.2135489 0.7669608 -3.0501704
3.8261917 0.60264862 -3.1043189
4.2519197 0.62082553 -3.1060829
4.6229281 0.56749398 -3.0779877
-0.51081997 1.0510941 -3.0113111
-0.20147249 1.1034189 -3.0736535
0.2842772 1.1705273 -3.1003101
0.76846886 1.199844 -3.099489
1.3126467 1.161394 -3.091877
1.7633156 1.2549441 -3.1297376
2.2584229 1.2566414 -3.1213601
2.6908941 1.1443839 -3.0430012
1.854615 1.553094 -3.0267959
2.1744599 1.5574689 -3.0316162
-4.6816602 5.3126531 -3.2598469
-4.2178059 5.097024 -3.283355
-3.7814932 5.2774343 -3.2638338
-4.7952394 5.7495203 -3.2839308
-3.5579574 5.6870499 -3.2631822
-5.0968385 6.4017105 -3.2033577
-4.8120298 6.1656518 -3.3227851
-3.532985 6.4543777 -3.2193775
-3.4846363 6.1539798 -3.267627
-5.1124835 6.7628679 -3.2779415
-4.9981999 6.9402938 -3.096431
-3.7373519 6.809124 -3.254951
-5.0510964 7.0512276 -3.4442177
-4.7564602 7.2335258 -3.280601
-4.2350531 7.2198372 -3.2509313
-3.9238253 7.071969 -3.3750761
0.95858997 7.4532938 -3.0473411
1.30029 7.3320203 -3.1442616
1.7026523 7.3357348 -3.2305419
0.45554999 7.8956938 -3.011131
0.77151859 7.7594156 -3.1298606
1.2319466 7.7258606 -3.3385608
1.7091169 7.7339468 -3.2746608
0.45651665 8.1917601 -3.0284443
0.75553656 8.2656889 -3.2466869
1.3042431 8.315732 -3.1946576
1.6027163 8.1960402 -3.3510733
0.79687536 8.7901611 -3.2359858
1.2798071 8.768712 -3.268574
1.56732 8.5031939 -3.4929111
0.89906853 9.1271801 -3.0982766
1.1617876 9.0712843 -3.3040819
-2.0638299 -6.0840659 -2.5415311
-1.7485436 -6.145328 -2.7529624
-1.2590872 -6.138042 -2.7154975
-0.7932263 -6.0873303 -2.8426228
-0.28992668 -6.057682 -2.9258826
0.2924 -6.0556607 -2.9140172
0.69926333 -6.084301 -2.8930092
1.258963 -6.1089206 -2.8849561
1.7493545 -6.0957971 -2.7900245
2.2492728 -6.102088 -2.7905152
2.7469356 -6.0975404 -2.710252
3.2504382 -6.1091146 -2.7769229
3.7035644 -6.0879865 -2.7392194
4.1046553 -6.0396285 -2.7025633
-2.0298049 -5.8962164 -2.5220661
-1.9277757 -5.7635942 -2.7467124
-0.64312744 -5.8550873 -2.6315935
-0.22663374 -5.8015313 -2.7146523
0.24871588 -5.7712607 -2.697655
0.77091378 -5.8038058 -2.6664879
1.2179265 -5.865623 -2.6494505
1.7080165 -5.8863797 -2.5801852
2.2168615 -5.9466119 -2.5334809
4.3254623 -5.7781529 -2.8102016
4.5779543 -5.5923624 -2.6461251
-1.684896 -5.2482605 -2.7092357
-1.4805601 -5.032681 -2.8773961
4.7512279 -5.2261572 -2.7667961
-1.234714 -4.8281245 -2.6729376
-0.75718004 -4.6670384 -2.7294858
-0.435175 -4.5610313 -2.8802259
4.8378782 -4.8842859 -2.8598692
5.2589269 -4.6833057 -2.7467566
5.5034499 -4.5761461 -2.5691309
-0.33656996 -4.2392931 -2.7482619
5.3583612 -4.2597437 -2.9299757
5.5767965 -4.236546 -2.6715598
-0.39525712 -3.7510152 -2.7173257
5.4354324 -3.7596619 -2.9308968
5.6587577 -3.7461464 -2.6806633
-0.54254454 -3.2051687 -2.6928873
-0.43329 -3.3392727 -2.870858
5.45962 -3.0562959 -2.986721
5.7229004 -3.2622778 -2.8035862
6.0125599 -3.115026 -2.575861
-1.6746219 -2.62289 -2.547663
-1.295718 -2.563396 -2.5342669
-0.70328796 -2.7453012 -2.709347
5.4981599 -2.876976 -2.970161
5.7936864 -2.7429914 -2.7958603
6.0650654 -2.7570386 -2.5727561
-3.7139833 -2.053736 -2.5691893
-3.2742724 -2.208293 -2.5765932
-2.7968092 -2.211148 -2.5836349
-2.29668 -2.1401219 -2.5631371
-1.7815224 -2.2640052 -2.6434457
-1.296818 -2.2725134 -2.6496494
-0.85431081 -2.2955153 -2.7883635
5.8323803 -2.2620506 -2.8331933
6.0450063 -2.265486 -2.5756044
-4.1192598 -1.63853 -2.5730829
-3.7658615 -1.7141187 -2.6790221
-3.2612338 -1.7721654 -2.7807772
-2.7621784 -1.7707975 -2.8424942
-2.2740388 -1.7689314 -2.7820432
-1.7881064 -1.7787911 -2.7840664
-1.2847514 -1.7541778 -2.8031688
-0.91701251 -1.8560798 -2.8508444
5.8329463 -1.7309744 -2.8745644
6.0710421 -1.7397461 -2.6146696
-4.5018148 -1.089711 -2.5248861
-4.2161698 -1.2264332 -2.627115
-3.7019911 -1.2798387 -2.7904131
-3.2442751 -1.2917668 -2.9241993
-2.1676033 -1.3772393 -2.967766
-1.700889 -1.330373 -2.9416559
-1.2807839 -1.3710099 -2.9503269
5.7570548 -1.2435993 -2.8892796
6.1576262 -1.2461253 -2.6821747
-4.5044565 -0.73046929 -2.5079377
-4.2045441 -0.72120857 -2.6151586
-3.7048345 -0.77886999 -2.7901883
-3.304678 -0.76853937 -2.9119928
5.7879071 -0.75618273 -2.8678961
6.1676888 -0.78034031 -2.637574
-4.194798 -0.24883778 -2.5561099
-3.7067907 -0.27541 -2.7580335
-3.3049333 -0.26651824 -2.8681309
5.4103427 -0.16641743 -2.941057
5.7429333 -0.24367917 -2.7573681
6.0621762 -0.36527601 -2.584955
-4.0684838 0.14340201 -2.550307
-3.7101319 0.22489849 -2.665956
-3.2217972 0.25080347 -2.854918
-2.8788033 0.41707399 -2.9701109
5.2610607 0.27173999 -2.8620267
5.6309876 0.20183231 -2.6210892
-3.6973565 0.71950823 -2.6477854
-3.2117248 0.73922729 -2.7672565
-2.7359769 0.77253246 -2.8927302
-2.2540815 0.85835117 -2.9554152
-1.67744 0.87822729 -2.9836693
-1.2326655 0.83790511 -2.9567621
-0.86118996 0.90509403 -2.975826
3.4899499 0.85084403 -2.9762709
3.741241 0.85099399 -2.9429622
4.2771678 0.91673952 -2.8764746
4.7802296 0.80159926 -2.8254538
5.2052236 0.72703397 -2.6769822
5.5532327 0.6456607 -2.5281744
-3.5814266 1.113094 -2.5590894
-3.2024124 1.2269361 -2.6496451
-2.713181 1.246154 -2.7531791
-2.2216771 1.2411782 -2.808172
-1.7212754 1.2656032 -2.8371551
-1.2343458 1.273694 -2.8641551
-0.72099143 1.2588606 -2.8693905
-0.26967749 1.3501607 -2.8560226
0.22280715 1.4215367 -2.9401052
0.75612253 1.4722689 -2.938056
1.1903689 1.3923829 -2.9428129
1.55755 1.489894 -2.9588411
2.8313868 1.3547807 -2.9354923
3.2870336 1.283054 -2.9255948
3.7968965 1.2582167 -2.8384244
4.2581663 1.2615792 -2.686317
4.67483 1.1750025 -2.5750794
5.101295 1.0697939 -2.5129108
-3.08902 1.631194 -2.5527411
-2.7137563 1.7251865 -2.590688
-2.262419 1.7464226 -2.6015053
-1.7601827 1.7159007 -2.5843842
-1.2284354 1.6909823 -2.6670287
-0.7817663 1.7364439 -2.6485889
-0.25269499 1.7291002 -2.6297636
0.24760832 1.6954217 -2.6932359
0.7498455 1.7817552 -2.7434936
1.2447976 1.7485338 -2.7314994
1.7369331 1.7712588 -2.7883854
2.2357666 1.7934369 -2.8070819
2.726752 1.7516941 -2.8626459
3.281441 1.7878528 -2.8378887
3.7652211 1.7663367 -2.705714
4.2128401 1.6787773 -2.5809193
0.78487253 2.0318191 -2.5298033
1.264758 2.040534 -2.5418289
1.7391825 2.037394 -2.5408585
2.2645233 2.0788939 -2.5544012
2.7557027 2.1394761 -2.6382401
3.2037392 2.1404512 -2.645288
3.6630442 2.0838368 -2.5424154
-4.1805453 4.9522271 -2.7235665
-3.9123101 4.9824438 -2.6239362
-4.735796 5.2707467 -2.7624302
-4.4902601 5.0231938 -2.884201
-3.7077186 5.245038 -2.7793622
-4.849515 5.7504668 -2.7844403
-3.5416336 5.6977868 -2.7525697
-5.0911598 6.2773056 -2.7687876
-4.8965535 6.0290275 -2.8863144
-3.5870218 6.2875123 -2.7264273
-3.4964151 6.0487189 -2.8778734
-5.070857 6.627984 -2.8096397
-4.8743653 6.8817196 -2.725256
-4.1791863 6.9173036 -2.6322801
-3.8205709 6.7050829 -2.7940962
0.47080001 6.8551941 -2.519721
0.77563 6.8800387 -2.5834665
1.2640222 6.8896718 -2.6498332
1.5965614 6.952765 -2.7455525
-4.6761765 7.0794272 -2.8563912
-4.3072076 7.0752854 -2.8458068
-0.53876501 7.3722939 -2.509846
-0.22171944 7.2501884 -2.6017218
0.2621665 7.2283087 -2.7158196
0.75107002 7.2186575 -2.8233173
1.2653216 7.2429357 -2.7660551
1.6481508 7.2435241 -2.777164
-0.22685568 7.7343507 -2.6426232
0.24324214 7.7362866 -2.8859222
0.85708135 7.7727652 -2.6222081
1.2440035 7.744988 -2.7468197
1.59294 7.6418195 -2.936646
-0.13172376 8.1239195 -2.6209021
0.20981698 8.2932835 -2.8236308
0.83651531 8.2835598 -2.6287992
1.1456928 8.2175856 -2.8726456
0.35627076 8.7946806 -2.6720595
0.7675969 8.8066788 -2.7387474
1.0853871 8.813693 -2.9474566
0.81589061 9.1350107 -2.7389235
1.0554534 9.1113272 -2.9709876
-2.7107732 -6.1005158 -2.0857368
-2.2167513 -6.1457372 -2.1959984
-1.7644993 -6.15658 -2.2302897
-1.3139923 -6.0844488 -2.2474909
2.98493 -6.057776 -2.498301
3.3099148 -6.0632663 -2.3975575
3.7677879 -6.0812254 -2.2694969
4.246551 -6.0506907 -2.2383063
-2.6510272 -5.7806358 -2.0517774
-2.1910536 -5.7634559 -2.1690192
-1.976105 -5.5491409 -2.3727112
-1.0568466 -5.8525124 -2.1825445
-0.736247 -5.7101898 -2.2491012
-0.27113417 -5.6572356 -2.2513244
0.26878539 -5.654963 -2.2564394
0.72502911 -5.6475368 -2.2295682
1.2511293 -5.6403375 -2.2758846
1.7405007 -5.6512337 -2.275353
2.2585211 -5.6933317 -2.3063045
2.7475212 -5.7581663 -2.2908022
3.2371185 -5.8225746 -2.1904657
3.5589099 -5.9633512 -2.095861
4.4450083 -5.9498196 -2.3082526
4.6456757 -5.6599131 -2.2497852
-2.2274737 -5.4483056 -2.0386686
-1.829066 -5.2027063 -2.2252345
4.8747749 -5.2547088 -2.2921553
5.1730404 -5.0261793 -2.1629677
-1.5727711 -4.8307362 -2.1477611
-1.2790668 -4.6959496 -2.1923079
-0.86661547 -4.6060786 -2.2802563
5.3874617 -4.8250628 -2.3072681
5.5820513 -4.6212711 -2.2305036
-1.667136 -4.0913177 -2.013705
-1.4204367 -4.1766076 -2.0139191
-0.55656499 -4.288981 -2.0865386
-0.44129553 -4.274478 -2.33197
5.7537069 -4.266398 -2.2694521
-2.1204598 -3.6523426 -2.0469675
-1.7739422 -3.7323358 -2.0777526
-1.3038599 -3.7342224 -2.0441995
-0.65574718 -3.7014055 -2.1479037
-0.45656502 -3.8976393 -2.3668661
5.8856974 -3.8298059 -2.369617
6.1435781 -3.6631317 -2.167851
-2.2186244 -3.2249846 -2.110786
-1.7909676 -3.2308259 -2.2384276
-1.2917682 -3.2292004 -2.2204077
-0.79376495 -3.2590191 -2.2848477
6.2101884 -3.2382569 -2.2742047
-3.6411099 -2.606226 -2.1137559
-3.2707181 -2.6627395 -2.1870644
-2.775049 -2.6843169 -2.2193758
-2.2920759 -2.7329679 -2.2700055
-1.853179 -2.7611001 -2.435967
-1.2943571 -2.7858949 -2.4288058
-0.91872001 -2.823056 -2.4278259
6.3096437 -2.7481036 -2.3093464
6.5495267 -2.6442692 -2.0727477
-4.245101 -2.1347106 -2.1882112
-3.8165247 -2.2969007 -2.3095233
-3.3284349 -2.4173958 -2.4307177
-2.7957461 -2.4313681 -2.4508891
-2.2952089 -2.361722 -2.4441819
-1.99508 -2.431396 -2.488591
6.2690701 -2.2354703 -2.3047972
6.5324497 -2.2949209 -2.070636
-4.6721959 -1.6787882 -2.157644
-4.3495564 -1.7622832 -2.3852708
6.3086443 -1.7785383 -2.3006775
6.5473199 -1.5637159 -2.1026843
-5.0585098 -1.133186 -2.053041
-4.7690115 -1.2286273 -2.3033497
-4.49615 -1.448856 -2.4418409
6.4331794 -1.247036 -2.420661
6.6102395 -1.2328771 -2.1714089
-5.0725589 -0.79053849 -2.1025422
-4.7884288 -0.73690861 -2.3650658
6.4211817 -0.74054003 -2.399637
6.5964394 -0.74242097 -2.1675551
-5.0875063 -0.24307099 -2.1021285
-4.7368078 -0.24585384 -2.3526933
-4.408145 -0.079611003 -2.484731
5.9380598 -0.076746002 -2.490391
6.2546802 -0.2207033 -2.2740459
6.5363336 -0.39874601 -2.0818079
-5.0416651 0.16472399 -2.0504909
-4.7504597 0.26098847 -2.2385798
-4.2539029 0.32008308 -2.4467363
5.8578129 0.25193697 -2.4031568
6.1590161 0.25819322 -2.1575594
-4.6541629 0.71679401 -2.1343822
-4.2223344 0.7708782 -2.3333657
-3.9158199 0.86639398 -2.4813211
5.4251499 0.92729402 -2.460196
5.7727218 0.77828878 -2.3180079
6.0992517 0.6922369 -2.1095054
-4.51156 1.126394 -2.0422909
-4.1882844 1.2523208 -2.1501901
-3.7721512 1.2733867 -2.362308
-3.4157 1.447594 -2.4956009
4.8674855 1.3410829 -2.4262798
5.2775011 1.2728441 -2.3103814
5.6973805 1.1641066 -2.1391213
-4.0891447 1.6016691 -2.0563636
-3.7251272 1.7354504 -2.201968
-3.2687943 1.8130877 -2.3805718
-2.7744939 1.9418541 -2.4556012
-2.2267823 1.991094 -2.4726837
-1.6206433 1.9853607 -2.4682376
-1.2477275 1.989544 -2.4738359
-0.77362198 1.986034 -2.4723752
-0.25015002 1.973954 -2.4618189
0.2220425 1.9681439 -2.4575686
0.50501001 1.999894 -2.494051
4.3148384 1.8817512 -2.4407954
4.7515278 1.7546797 -2.3139949
5.1739006 1.6941011 -2.0970845
5.5573802 1.527694 -2.0040009
-3.6661448 2.0084441 -2.050801
-3.2004278 2.1763442 -2.1528857
-2.718276 2.2660065 -2.2542045
-2.2711053 2.2738645 -2.3325896
-1.7603106 2.2487109 -2.3674037
-1.2732594 2.2826779 -2.265805
-0.78136992 2.2228491 -2.2190163
-0.25286901 2.2218089 -2.2208881
0.28042001 2.2304089 -2.2337608
0.76746815 2.2501879 -2.2584729
1.2636639 2.3124466 -2.3056307
1.7498099 2.3183138 -2.3605244
2.2247195 2.3336573 -2.3437533
2.7124166 2.3955214 -2.347322
3.2182224 2.3796039 -2.4165437
3.767832 2.3273807 -2.3829799
4.2527905 2.2488711 -2.2412589
4.72788 2.1224036 -2.104264
-2.6528833 2.5416274 -2.0417011
-2.2113576 2.6298938 -2.0907161
-1.7849737 2.6215227 -2.121598
-1.2974724 2.6171563 -2.0583961
-0.97693998 2.506094 -2.015481
1.3649601 2.5310607 -2.0608842
1.8022313 2.608469 -2.0993221
2.2387443 2.6317441 -2.07884
2.7809255 2.6156485 -2.1100521
3.2507794 2.6292403 -2.1854031
3.7109582 2.6195865 -2.1478333
4.0715299 2.5379438 -2.0913758
-4.5826974 4.8880939 -2.2399435
-4.2858019 4.8429942 -2.2718384
-3.835135 4.8958139 -2.2314072
-4.8225822 5.2658992 -2.2815862
-3.6210866 5.2074332 -2.2591619
-5.0201726 5.8952942 -2.2346461
-4.8886662 5.7009215 -2.3024919
-3.5609999 5.6978545 -2.2524695
-5.0598783 6.2059488 -2.2867408
-4.99577 6.379694 -2.0978911
-3.7315979 6.2314854 -2.2366607
-1.1489583 6.3511939 -2.0596826
-0.73857743 6.3053765 -2.0969527
-0.26284999 6.3529696 -2.1400435
0.23228997 6.3975053 -2.111311
0.71882004 6.4645195 -2.0938885
-5.0281949 6.5159941 -2.4179411
-4.771194 6.6912475 -2.2289405
-4.2388697 6.7502704 -2.2435145
-3.9141567 6.5820103 -2.3878894
-1.2381194 6.7720537 -2.1385646
-0.75166613 6.7512608 -2.3178699
-0.22709247 6.695344 -2.3750076
0.2303206 6.7041931 -2.3906116
0.75674713 6.639751 -2.3353076
1.2848849 6.7295322 -2.247122
1.5540349 6.9404936 -2.4281759
-1.2030777 7.2830553 -2.1298804
-0.74474674 7.2472138 -2.4034717
-0.38933998 7.0021939 -2.487906
0.34784004 7.4054108 -2.0853577
0.75835109 7.2771664 -2.1951976
1.22523 7.1838708 -2.3184214
1.559355 7.0272942 -2.4381509
-1.0672966 7.6284604 -2.1161311
-0.75127524 7.7556047 -2.2972035
-0.438535 7.922544 -2.4685411
0.28523001 7.759306 -2.1475701
0.67850274 7.7245665 -2.3967028
-0.63164002 8.098361 -2.1889327
-0.29078874 8.3392258 -2.3075125
0.3585059 8.2398005 -2.1715014
0.59061116 8.2952929 -2.4014375
-0.054582 8.6416941 -2.1863732
0.28936723 8.8169155 -2.2319405
0.63623571 8.8371153 -2.3267932
0.47648999 9.0392942 -2.329561
0.60284501 9.0745687 -2.3914485
-3.727711 -6.1422749 -1.6605119
-3.2528028 -6.1446147 -1.7628989
-2.7940433 -6.1738453 -1.7311468
-2.2496827 -6.1716967 -1.7612369
-1.7795235 -6.152391 -1.7179219
-1.4006467 -6.066546 -1.8091809
3.8177602 -6.0702114 -1.7408409
4.2128935 -6.0587926 -1.7528876
4.5127549 -6.0190058 -1.763281
-4.0767946 -5.9014664 -1.532956
-3.7523632 -5.7720208 -1.6463614
-3.2611508 -5.7073264 -1.8104594
-2.9103868 -5.6856937 -1.9310188
-1.1219333 -5.7491212 -1.7359095
-0.76125687 -5.6785583 -1.727621
-0.23279923 -5.67764 -1.7788424
0.22547156 -5.6751151 -1.7176195
0.76192254 -5.6573925 -1.7653912
1.2290539 -5.6414523 -1.7329402
1.7635235 -5.627955 -1.7780811
2.2455044 -5.6158853 -1.7260174
2.7630303 -5.6031914 -1.788025
3.2500374 -5.681365 -1.7659383
3.565804 -5.9252138 -1.791445
4.6823039 -5.7595119 -1.7799971
-3.6351476 -5.3805361 -1.5402285
-3.256871 -5.3046021 -1.6264461
-2.7795963 -5.2701783 -1.7837451
-2.3028476 -5.1791983 -1.9203726
-1.9312999 -5.0472012 -1.982566
4.9320664 -5.3759522 -1.7992159
5.2465873 -5.1320596 -1.706892
5.5655651 -5.0551157 -1.5091209
-2.6825941 -4.7779245 -1.5752853
-2.2810893 -4.7752061 -1.7865212
-1.8228549 -4.7350216 -1.9414183
5.4648995 -4.893436 -1.8150644
5.7246747 -4.7418866 -1.6769497
6.2148714 -4.6845007 -1.529987
6.6630778 -4.6092062 -1.5266509
-2.6156313 -4.2553077 -1.5576094
-2.2843597 -4.2729788 -1.7707269
-1.8247894 -4.307292 -1.9439635
-1.2293915 -4.2802992 -1.982541
-0.80887842 -4.2512727 -1.9459875
5.9015479 -4.3304534 -1.8393584
6.2165918 -4.2649474 -1.6112764
6.7139459 -4.2548437 -1.5584168
7.0889916 -4.1990428 -1.5328587
-2.6775081 -3.7472374 -1.6289474
-2.3275011 -3.7865391 -1.8829784
-1.98734 -3.8949561 -1.990101
-1.08804 -3.8920259 -1.9955209
-0.84837401 -3.8641281 -1.9781948
6.3244433 -3.7757561 -1.7897322
6.50804 -3.6287661 -1.564821
-3.58796 -3.081176 -1.514021
-3.2562282 -3.0987844 -1.6004261
-2.7536211 -3.2335098 -1.737599
-2.4546416 -3.3070726 -1.9466494
6.4664717 -3.3259201 -1.9111469
6.5968657 -3.2415907 -1.707031
-4.2864041 -2.5611622 -1.5885251
-3.7888308 -2.7766531 -1.7499282
-3.3259799 -2.8966377 -1.8165059
-2.8424425 -2.9075835 -1.9251211
6.6924305 -2.772033 -1.7727009
-5.0113401 -2.092376 -1.552801
-4.7363763 -2.1880667 -1.7132336
-4.3172536 -2.3577611 -1.866181
-3.99031 -2.474966 -1.985491
6.7365355 -2.2770209 -1.7737596
-5.1393261 -1.7173833 -1.63225
-4.8752975 -1.7830415 -1.8553703
6.6994963 -1.7409565 -1.7889059
-5.2457213 -1.2665415 -1.7543923
-4.9888 -1.450521 -1.928646
6.8162432 -1.2490348 -1.7545938
-5.552825 -0.62381101 -1.556386
-5.3205585 -0.78862095 -1.774742
6.8378744 -0.723665 -1.7739451
-5.5551257 -0.24324314 -1.5950495
-5.3217001 -0.21293369 -1.8380526
6.4411402 -0.043256 -1.924811
6.70751 -0.23313458 -1.7557698
-5.2740283 0.25742149 -1.7673334
6.4036036 0.25803202 -1.8949581
6.5898499 0.20177768 -1.6498982
-5.1801486 0.71886396 -1.7285122
-4.8451133 0.87706059 -1.933791
6.319489 0.75609398 -1.800099
6.5225396 0.63986063 -1.5718576
-5.0960045 1.1496512 -1.6176924
-4.7634115 1.296594 -1.8042357
-4.4162598 1.415994 -1.961431
5.8592153 1.3421106 -1.870657
6.1455207 1.1715939 -1.6923395
-4.684082 1.745544 -1.655236
-4.2463045 1.8192003 -1.8667691
-3.9162199 1.9979939 -1.937181
5.3607802 1.8401855 -1.8385359
5.7400846 1.6995939 -1.6880344
-5.0434098 2.3627605 -1.5591077
-4.711741 2.2702739 -1.6455379
-4.2123942 2.2760274 -1.7552445
-3.7342696 2.2725341 -1.8604312
-3.2998314 2.3843565 -1.935236
-2.8863101 2.499994 -1.993951
-0.74006498 2.4524941 -1.9580234
-0.27366599 2.433054 -1.940147
0.27155799 2.4651542 -1.979291
0.74742746 2.4623189 -1.9802635
1.01834 2.469594 -1.992521
4.4486232 2.4457273 -1.9257544
4.7867737 2.3495314 -1.8262303
5.1664429 2.1713884 -1.6961989
5.5481801 2.0072939 -1.517211
-5.1124825 2.7761106 -1.5652069
-4.7128515 2.710181 -1.6952471
-4.2147427 2.7154138 -1.7796102
-3.7160234 2.7158806 -1.7803664
-3.2130508 2.7188416 -1.7596115
-2.736048 2.7767055 -1.7662599
-2.2735569 2.8717015 -1.8223294
-1.751569 2.8785393 -1.8775547
-1.2380389 2.8505328 -1.8003044
-0.77514434 2.691546 -1.7128432
-0.23806834 2.5992692 -1.7136317
0.25960624 2.6255815 -1.7220672
0.78591353 2.6826692 -1.7134815
1.2832422 2.7258766 -1.734278
1.7388167 2.848563 -1.8349316
2.2674947 2.8748555 -1.869728
2.7617114 2.868674 -1.8362957
3.2664628 2.8873248 -1.8471017
3.7746282 2.8579414 -1.7721363
4.2427783 2.705862 -1.7547959
4.6638751 2.5968189 -1.6053035
-5.1049933 3.2720566 -1.581871
-4.7168283 3.2242389 -1.7262951
-4.2177162 3.2282138 -1.7898039
-3.720469 3.2278538 -1.7544569
-3.2239449 3.2233086 -1.6294485
-2.8137157 3.08338 -1.5421211
-2.221242 3.0632939 -1.5923049
-1.795581 3.0563498 -1.6577678
-1.33327 3.0358191 -1.5735435
1.7732922 3.0639141 -1.595207
2.2098818 3.0985272 -1.6299137
2.7463121 3.0860238 -1.5705489
3.2839878 3.0983939 -1.5916421
3.6219399 3.0495274 -1.5758343
-5.0449853 3.6924691 -1.534016
-4.7189865 3.7342005 -1.6566682
-4.2194376 3.7380004 -1.7432437
-3.7234743 3.7380209 -1.704399
-3.2577536 3.713994 -1.5824775
-4.7211962 4.2449989 -1.5788159
-4.2211828 4.2478037 -1.6905625
-3.7134459 4.260839 -1.6382123
-3.3770163 4.2236938 -1.54311
-4.6724215 4.7641563 -1.7175699
-4.2708859 4.6596942 -1.823119
-3.7136071 4.7593141 -1.7144085
-5.0219102 5.3387942 -1.594111
-4.9139123 5.2665782 -1.7924871
-3.5745139 5.2453814 -1.7373661
-5.0170321 5.845758 -1.7494746
-4.934123 5.7087369 -1.8185953
-3.6607175 5.748229 -1.7509215
-2.0643632 5.8949609 -1.5360476
-1.7105701 5.8310366 -1.6183167
-1.2549539 5.8124275 -1.6769732
-0.78890496 5.8735194 -1.6803559
-0.331184 5.9654341 -1.630667
-5.0195999 6.0785942 -1.901031
-4.8656745 6.2884841 -1.7181774
-4.1676736 6.3813267 -1.6754483
-3.8654792 6.1629772 -1.802456
-2.1343298 6.240027 -1.5865121
-1.7348894 6.2435808 -1.7954835
-1.2412472 6.1640577 -1.9246837
-0.70723671 6.0762272 -1.907281
-0.211629 6.1102133 -1.827228
0.23603624 6.1999626 -1.755896
0.74383557 6.3722725 -1.7743583
1.0294451 6.473444 -1.898176
-4.6832972 6.5598936 -1.883106
-4.3599668 6.5983491 -1.8686954
-2.0751183 6.6916771 -1.5985543
-1.740545 6.7580543 -1.8318732
-0.046149999 6.8717942 -1.511061
0.27730501 6.8430438 -1.602231
0.76227254 6.7679939 -1.6888009
1.1148264 6.6846652 -1.8858929
-1.7228725 7.2281585 -1.7347722
-1.4156101 7.3520436 -1.954331
-0.22679523 7.2568703 -1.6648557
0.20895188 7.1789312 -1.8691111
0.63697004 7.0171275 -1.9310776
-1.575145 7.6044941 -1.639886
-1.2579379 7.7956676 -1.7795678
-0.19555134 7.7305207 -1.7132565
0.020816667 7.7501273 -1.9402343
-1.02933 8.0297441 -1.772326
-0.74766427 8.1986933 -1.7813359
-0.18910706 8.2977886 -1.6594706
0.12537923 8.3108253 -1.8504211
-0.11668334 8.5891771 -1.7928528
0.20778213 8.6897011 -1.8964788
-4.1767664 -6.135376 -1.2427733
-3.7414165 -6.175108 -1.2585125
-3.253468 -6.1812596 -1.2368823
-2.7234335 -6.1788497 -1.2703803
-2.2623479 -6.1668634 -1.2316668
-1.7235283 -6.148808 -1.2787836
-1.4154167 -6.1116624 -1.158821
3.4204178 -6.0581903 -1.1738269
3.7391357 -6.0863986 -1.2431017
4.2604923 -6.0667934 -1.2976325
4.6408658 -6.0346346 -1.1711024
-4.2132063 -5.7657342 -1.2605673
-3.9721999 -5.546236 -1.483291
-1.00363 -5.6844659 -1.402251
-0.71019226 -5.6855474 -1.2805943
-0.25841531 -5.6865692 -1.2498378
0.25020167 -5.6876092 -1.2384962
0.75005931 -5.6735549 -1.2429409
1.270591 -5.6559215 -1.2719802
1.7515043 -5.6429739 -1.2546295
2.2337275 -5.6276636 -1.2391946
2.7512434 -5.6254282 -1.2693375
3.1819348 -5.7876959 -1.301416
4.780962 -5.8519268 -1.2850983
5.2022624 -5.6351576 -1.2451364
5.6973276 -5.5995731 -1.1204922
6.1171737 -5.5290494 -1.0839477
-4.0930123 -5.4271979 -1.131359
-3.7975018 -5.2501297 -1.2591294
-3.3432083 -5.1044192 -1.3958343
5.2906346 -5.3292785 -1.4511267
5.7401142 -5.2346067 -1.3844073
6.2414613 -5.2480588 -1.2729238
6.6610641 -5.1776662 -1.178067
-3.5053699 -4.9876361 -1.067181
-3.206398 -4.8532696 -1.1469347
-2.9110065 -4.7224298 -1.3405943
6.2158022 -4.907618 -1.4837049
6.7328825 -4.8217344 -1.4020647
7.2378049 -4.7401929 -1.2592027
7.5961328 -4.5979195 -1.128931
-2.8626702 -4.2589312 -1.2330073
7.3097463 -4.3064694 -1.4356546
7.6964307 -4.2355933 -1.2432246
8.0164003 -4.0488262 -1.070881
-3.0556433 -3.5487661 -1.0734377
-2.8880415 -3.7645535 -1.2638716
6.4895549 -3.838716 -1.476176
6.7371769 -3.7157292 -1.4012265
7.2056766 -3.7212734 -1.4181873
7.7477479 -3.7463355 -1.3164963
8.0739231 -3.7048037 -1.1102823
-4.1123047 -3.122086 -1.096036
-3.7968071 -3.2319815 -1.2085091
-3.2958286 -3.355391 -1.2449048
-2.9576166 -3.4576194 -1.3127044
6.8047786 -3.2491758 -1.2898287
7.2751923 -3.2645423 -1.1658292
7.7156453 -3.2504251 -1.1674343
8.0677404 -3.3481641 -1.071591
-4.654994 -2.5558801 -1.166075
-4.2816758 -2.8029583 -1.2781409
-3.9389901 -2.950906 -1.4304409
6.8815293 -2.7700019 -1.2755191
7.7399602 -2.9996359 -1.028421
-5.1632719 -2.1746244 -1.200861
-4.8924451 -2.3420935 -1.3750935
6.9422526 -2.2754874 -1.3590518
7.0339365 -2.220736 -1.1168382
-5.5324035 -1.5481826 -1.080591
-5.3791318 -1.7459207 -1.2769403
6.93297 -1.7687144 -1.4223794
7.0683918 -1.7573738 -1.1730322
-5.6690459 -1.2002534 -1.2069794
-5.4726067 -1.3307993 -1.4184211
6.9566865 -1.305566 -1.4305867
7.0523605 -1.2514498 -1.1899785
-5.755022 -0.74245602 -1.2498815
6.9710555 -0.699018 -1.4552031
7.0735731 -0.78822958 -1.2109891
-5.7812829 -0.23521245 -1.2682168
6.9155302 -0.22358909 -1.3209596
7.0430655 -0.40250933 -1.1415793
-5.7273989 0.22934787 -1.2371432
6.7868552 0.262943 -1.2753775
-5.6434979 0.72089398 -1.2111815
-5.4315081 0.83644402 -1.4281535
6.4559302 0.87572736 -1.3799677
6.6125236 0.72751272 -1.2543072
-5.5653934 1.1295272 -1.0910977
-5.3239856 1.3020235 -1.2830952
6.3036027 1.2323511 -1.2831438
-5.5397334 1.9022607 -1.0703543
-5.1882663 1.7956271 -1.2443371
-4.9280958 1.812694 -1.442183
5.8675342 1.8863943 -1.2748071
6.0968456 1.6579396 -1.1857711
-5.6875949 2.2835479 -1.1305194
-5.2518954 2.2325356 -1.3849859
5.3195734 2.3528719 -1.3021588
5.6337214 2.1541402 -1.2211494
-6.0074 2.8016438 -1.068521
-5.7166162 2.749589 -1.2569555
-5.3621926 2.7697313 -1.4235647
-0.67826378 2.8886402 -1.3246726
-0.25051898 2.8092937 -1.260174
0.23968811 2.8459566 -1.240584
0.73684311 2.9200788 -1.2930787
1.1687601 2.9403141 -1.409371
4.3151731 2.9200828 -1.3713176
4.7531996 2.7634032 -1.2443084
5.1352735 2.5745163 -1.1609088
-5.7600708 3.2418575 -1.2258514
-5.3446741 3.3047225 -1.4416152
-2.7103424 3.2863555 -1.4263778
-2.2490978 3.2742033 -1.2861013
-1.7313373 3.2201991 -1.2436393
-1.2153476 3.1318588 -1.2465793
-0.83889002 3.039969 -1.1604635
0.92545998 3.037394 -1.088351
1.2697291 3.0978758 -1.1866075
1.7428724 3.2051642 -1.2684187
2.278693 3.2950871 -1.2485917
2.7331042 3.299166 -1.2216642
3.242166 3.3123391 -1.2208488
3.7539475 3.1971836 -1.2618181
4.1978197 3.092417 -1.1511871
-5.6506147 3.6962852 -1.1473355
-5.2835259 3.7367575 -1.377273
-3.0631759 3.8657341 -1.458771
-2.7375154 3.7479701 -1.3337948
-2.4165163 3.7128439 -1.1040235
-5.5721302 4.0395608 -1.080821
-5.2542906 4.2242589 -1.3137287
-3.146066 4.2773399 -1.432837
-2.7930627 4.2318587 -1.1700835
-5.2546377 4.6951523 -1.2371199
-4.9333444 4.7780342 -1.4599811
-3.2514265 4.740737 -1.2755567
-2.833761 4.6951575 -1.0769919
-5.1193132 5.285768 -1.2707012
-4.94731 5.061594 -1.481931
-3.5536957 5.3200164 -1.3576953
-3.2855909 5.2212896 -1.1308602
-2.7274876 5.272069 -1.091692
-2.2505479 5.3153038 -1.1934891
-1.7685362 5.3105879 -1.2095972
-1.3126981 5.427824 -1.1752049
-5.0588031 5.7102308 -1.3019692
-4.9757657 5.9308653 -1.2550895
-4.0258598 5.9878941 -1.097101
-3.7772324 5.7837639 -1.2280172
-3.0348148 5.5708942 -1.0283461
-2.7323346 5.790267 -1.1644769
-2.2733891 5.7684941 -1.3867059
-1.7976885 5.5863609 -1.4433376
-1.1767471 5.5660224 -1.3500525
-0.76285398 5.6996937 -1.2614475
-0.28951526 5.9182572 -1.2712206
-4.7371559 6.1812592 -1.251601
-4.2473421 6.2096729 -1.2574958
-3.9951999 6.0715942 -1.378721
-2.6801281 6.2371583 -1.1666418
-2.3913329 6.2708087 -1.3983638
-0.079000004 6.049469 -1.188256
0.27165273 6.2648578 -1.2492268
0.61069399 6.3837743 -1.4033091
-2.5814226 6.615869 -1.1371034
-2.3285372 6.7478218 -1.3394076
-0.72021586 6.7783356 -1.1402535
-0.26595154 6.7241397 -1.2479733
0.230161 6.6391039 -1.2696749
0.69527495 6.5876441 -1.403556
-2.1507416 7.1525769 -1.2474751
-1.8844757 7.3944049 -1.3225244
-0.70336717 7.2278619 -1.2538966
-0.42936 7.008894 -1.452886
-1.6202767 7.6192269 -1.2363366
-1.3015965 7.8094006 -1.2688283
-0.72886336 7.7940145 -1.1377217
-0.40997756 7.806994 -1.3739398
-1.03334 8.0338936 -1.460331
-0.69981194 8.1138334 -1.3212221
-0.33009145 8.1982365 -1.3951623
-4.5231299 -6.0551662 -0.6937477
-4.2860866 -6.1324611 -0.76507449
-3.7315333 -6.1781321 -0.76880234
-3.2593122 -6.1741381 -0.73099017
-2.7566273 -6.1693349 -0.77226365
-2.2462759 -6.1654925 -0.76260275
-1.7343887 -6.1589422 -0.75535893
-1.2987225 -6.1523948 -0.71833348
2.9586351 -6.0436311 -0.64650595
3.2724876 -6.092988 -0.7111088
3.7692583 -6.0859852 -0.74274701
4.2529659 -6.0711265 -0.7338149
4.7307792 -6.0558686 -0.72016472
5.1334152 -6.0432758 -0.58308101
-4.5556254 -5.8604608 -0.68033248
-4.4246483 -5.6685243 -0.83401936
-0.60284251 -5.6957035 -0.90003848
-0.25129727 -5.6959882 -0.7418201
0.26228717 -5.6907077 -0.76160675
0.73973918 -5.6872883 -0.7088902
1.256135 -5.6757865 -0.78274822
1.7383115 -5.6596222 -0.71500868
2.2896807 -5.6468606 -0.7579903
2.7165928 -5.7496543 -0.75894606
3.02584 -5.9534359 -0.90138102
3.9077799 -5.9825411 -0.51152098
4.1428452 -5.9244308 -0.51717103
5.2878671 -5.9095979 -0.81341821
5.7802763 -5.8005853 -0.78094101
6.2365451 -5.6564808 -0.80073011
6.5907602 -5.5926309 -0.64811099
-4.2212958 -5.2812171 -0.69717771
-3.8489921 -5.0587859 -0.85633695
6.79737 -5.3742585 -0.82357973
7.2053661 -5.1558294 -0.75089723
7.51474 -5.0758662 -0.56892103
-3.6624587 -4.9217534 -0.70521224
-3.2031071 -4.6894321 -0.75241858
7.3488703 -4.9505558 -0.95826602
7.7411366 -4.7670565 -0.76505864
8.0527 -4.6006761 -0.57126099
-3.0426817 -4.2539654 -0.70919269
-2.9890499 -4.1057558 -0.93425095
7.913033 -4.430553 -0.93695432
8.1671391 -4.215096 -0.74443513
-3.1649315 -3.6637177 -0.71962696
-2.9911001 -3.830126 -0.93611097
8.3153315 -3.7435112 -0.77543366
-4.2230692 -3.1778891 -0.72278839
-3.7712965 -3.3883436 -0.74507767
-3.3530533 -3.4750893 -0.92747766
7.1356902 -3.0419111 -0.987881
7.9331999 -3.0349159 -0.99075103
8.2883854 -3.2344904 -0.80097461
8.5141201 -3.378706 -0.57657099
-4.7541356 -2.7576067 -0.71501219
-4.4351749 -2.9534411 -0.89407098
7.2152567 -2.7345901 -0.81491411
7.7415342 -2.739862 -0.79033649
8.2170162 -2.7574434 -0.67046499
-5.53093 -2.0405359 -0.54315102
-5.240737 -2.2270319 -0.74242836
-4.9591069 -2.4947693 -0.74157429
7.1822805 -2.2364862 -0.74497253
7.736866 -2.494266 -0.54008305
-5.6190877 -1.7415084 -0.72036183
-5.4499102 -1.910786 -0.89238095
7.2015586 -1.7461674 -0.77456892
-6.007 -1.057336 -0.54624099
-5.7702465 -1.2884355 -0.75581628
7.1720405 -1.2588404 -0.77453941
-6.0521045 -0.72061104 -0.626948
-5.9294524 -0.72794306 -0.86755598
7.1838555 -0.76626998 -0.77636033
-6.0307236 -0.24785601 -0.55393767
-5.9257941 -0.25584519 -0.80081266
7.1256409 -0.278503 -0.776025
-6.0431151 0.15932401 -0.60226434
-5.924859 0.24829045 -0.81665814
6.9374213 0.34396395 -0.8121289
7.0402102 0.115219 -0.69293767
-5.847158 0.75884396 -0.75541997
6.7747779 0.78123522 -0.79959923
-5.6864138 1.2592174 -0.76394165
-5.4928598 1.488694 -0.95187098
6.4178476 1.362964 -0.81713092
6.5908866 1.102944 -0.75839758
-6.0142202 1.9181941 -0.56762099
-5.732738 1.7342675 -0.74760568
-5.4229097 1.6377439 -0.96562099
6.1849804 1.7390716 -0.77131665
-6.1337056 2.3115654 -0.70928317
-5.866703 2.1366274 -0.90385431
5.4479136 2.4689605 -0.85327101
5.7584972 2.241719 -0.7634905
6.04215 2.015244 -0.608881
-6.1681838 2.7394476 -0.76538163
-0.58723998 2.980294 -0.98886102
-0.23606928 2.9417725 -0.79193389
0.19553001 2.9719188 -0.82841974
4.8433738 2.9111941 -0.84539944
5.2250061 2.6770163 -0.72783875
-6.1331496 3.2070255 -0.75610465
-5.95755 3.4178939 -0.96464097
-2.0829139 3.4275539 -0.88626701
-1.7435236 3.3588111 -0.72156984
-1.2660434 3.2609839 -0.79277539
-0.76275003 3.1203108 -0.73651385
-0.42601001 3.0251939 -0.58508438
0.30817333 3.0379775 -0.65752429
0.72505873 3.1109006 -0.7372523
1.2369694 3.2486203 -0.74839705
1.7597941 3.3769209 -0.74740505
2.2176294 3.436337 -0.8231774
2.7721798 3.4717536 -0.88446301
3.3125451 3.4719439 -0.85227603
3.7721782 3.4102001 -0.79045928
4.2536182 3.2499111 -0.76548392
4.6578565 3.0784042 -0.68622601
-6.105031 3.7404943 -0.64701396
-5.87607 3.7890439 -0.88560504
-2.2173698 3.7687538 -0.76157695
2.3556235 3.5193272 -0.57152432
2.7760448 3.5362756 -0.66614276
3.2305589 3.5343738 -0.66306603
3.62643 3.5131941 -0.57419097
-6.0265198 4.1129942 -0.57319099
-5.7756519 4.2502937 -0.80172789
-2.5789566 4.3402438 -0.91595769
-2.3731029 4.2356005 -0.70352781
-5.640152 4.7140136 -0.71574098
-5.461596 4.7665339 -0.95671701
-2.6012762 4.7815943 -0.93416476
-2.2909813 4.8157048 -0.71059543
-1.98862 4.9777441 -0.580001
-5.5792251 5.2524939 -0.65642893
-5.3780608 5.3054342 -0.89801502
-3.3417301 5.465394 -0.98891103
-2.2790468 5.0296607 -0.96804768
-1.7437477 5.1583171 -0.71961278
-1.3174382 5.4101605 -0.79004431
-5.5258098 5.6092939 -0.56718099
-5.2038569 5.7279267 -0.78744602
-4.9185209 5.9416065 -0.76198477
-4.0578241 5.9766741 -0.69989699
-3.7458999 5.8650393 -0.74578202
-3.2785554 5.7881761 -0.8651399
-1.1395 5.7067571 -0.6071164
-0.79535609 5.8344388 -0.80262709
-0.432255 5.9946938 -0.93098104
-4.6474614 6.0616508 -0.75854528
-4.3037019 6.0651941 -0.77115959
-3.1562684 6.190022 -0.66164458
-2.9033115 6.372138 -0.85024327
-1.53037 6.4187942 -0.50004101
-1.2742939 6.4260941 -0.65095103
-0.71308005 6.2634368 -0.6316846
-0.26396266 6.2986341 -0.83104634
0.053383332 6.3916607 -0.9555943
-2.7227831 6.6688023 -0.74806601
-2.4649072 6.8798509 -0.72620672
-1.2341179 6.7221146 -0.74459797
-0.79560995 6.5746193 -0.92593104
-2.1705468 7.131341 -0.80384833
-1.7531488 7.2849941 -0.67262405
-1.2461751 7.2176933 -0.6861468
-0.92547286 7.3472519 -0.88826817
-1.6188 7.540894 -0.95631099
-1.2395275 7.6344695 -0.88977599
-0.87167835 7.676827 -0.9197576
-4.5398598 -6.030386 -0.182771
-4.2771955 -6.1180239 -0.23979568
-3.7480893 -6.1606588 -0.24887027
-3.2587256 -6.1676636 -0.2657133
-2.7549639 -6.1706367 -0.22960167
-2.2522349 -6.1410484 -0.25526974
-1.7439147 -6.1170359 -0.25257632
-1.2573588 -6.1451769 -0.25281224
-0.83884549 -6.1490383 -0.18071546
2.8530779 -6.071332 -0.23119545
3.1862445 -6.0833178 -0.27623209
4.8155894 -6.0585647 -0.31034553
5.251781 -6.0534363 -0.25935322
5.6175098 -6.0203109 -0.133136
-4.5590615 -5.8439593 -0.23403101
-4.4464397 -5.6111035 -0.1726585
-2.03444 -5.9666562 -0.086671002
-1.765165 -5.938674 -0.057085998
-0.10683715 -5.7124891 -0.28539243
0.25879928 -5.7033839 -0.2323617
0.7897467 -5.6926694 -0.25721017
1.2523736 -5.6834407 -0.23002388
1.78474 -5.6702743 -0.25737682
2.2631726 -5.6881595 -0.22606434
2.6102581 -5.877789 -0.282011
3.4642301 -5.888876 -0.31447101
3.6189201 -5.9185662 -0.44196099
4.3916531 -5.934916 -0.45743766
4.6733265 -5.9446197 -0.20570934
5.759665 -5.9704762 -0.27552101
6.2404356 -5.8157849 -0.25326431
6.7292233 -5.6144195 -0.25490847
-4.2078514 -5.2371254 -0.23386946
-3.9138 -5.0398059 -0.086870998
7.2447877 -5.3294067 -0.26265198
7.6387553 -5.0823226 -0.23736764
-3.68681 -4.9004488 -0.2409285
-3.1668022 -4.6758151 -0.20841098
7.8804822 -4.8486786 -0.31035227
8.1444521 -4.6317205 -0.23063958
-3.0384979 -4.3887701 -0.34673101
-2.9456036 -4.1823463 -0.18744232
8.377141 -4.2469349 -0.29268876
8.5193005 -4.002461 -0.12783101
-3.6579337 -3.5397625 -0.2250585
-3.2173665 -3.705992 -0.24346489
-2.9489467 -3.8992226 -0.13077767
8.4720898 -3.8666511 -0.42626601
8.5905933 -3.6959989 -0.25455487
-4.58881 -3.0809588 -0.19945386
-4.2596254 -3.3077223 -0.23471244
-3.8969941 -3.4434638 -0.31338301
8.6347265 -3.2284012 -0.28075397
-5.0469427 -2.6077235 -0.12778351
-4.8326664 -2.8382814 -0.24549657
8.4135818 -2.5941515 -0.37513435
8.5732279 -2.7858679 -0.23568918
-5.5475812 -2.0757787 -0.19907959
-5.3073359 -2.3523459 -0.2721163
7.3604403 -2.1798334 -0.27430043
7.7434883 -2.328742 -0.24188922
8.2413988 -2.384249 -0.1952925
-5.7594094 -1.7486159 -0.24327567
7.2942462 -1.7382493 -0.27559966
-6.0241961 -1.0553139 -0.246455
-5.9005618 -1.334318 -0.24529499
7.2784438 -1.2494792 -0.27609897
-6.1562815 -0.7108146 -0.24737401
7.2496638 -0.7608906 -0.276813
-6.1292057 -0.24111666 -0.25058702
7.2068315 -0.27169997 -0.27743751
-6.1458006 0.2334455 -0.25195152
6.9773297 0.48836064 -0.37766767
7.0765872 0.24572283 -0.26011688
-6.0718608 0.71678489 -0.16400281
-5.9634466 0.83389401 -0.36617318
6.8759861 0.76477402 -0.2780357
-5.8930559 1.239534 -0.25798899
6.4671049 1.471419 -0.302356
6.6422787 1.2072363 -0.28140154
-6.1696801 1.8125787 -0.24081175
-5.9004741 1.5506083 -0.30526671
6.2697611 1.7524639 -0.259801
-6.5178432 2.3451273 -0.064140998
-6.3777714 2.2606528 -0.29952043
5.8081808 2.3109488 -0.26633599
6.0513501 2.053519 -0.247666
-6.544127 2.7500942 -0.067414336
-6.385849 2.7459524 -0.31595936
4.96591 2.973794 -0.29435599
5.2336211 2.7923245 -0.24776317
5.5420675 2.5572941 -0.20941301
-6.5167198 3.090544 -0.067985997
-6.3766837 3.2399943 -0.29015765
-1.6613462 3.4069941 -0.26690871
-1.23544 3.3148646 -0.26058924
-0.7447412 3.1863937 -0.23972265
-0.2659106 3.0429294 -0.24012044
0.24632066 3.0966272 -0.23128501
0.74355763 3.2226095 -0.26036176
1.2454923 3.3528326 -0.2543433
1.7024453 3.4524786 -0.27478099
2.0516901 3.4979939 -0.44487101
3.9257784 3.4763606 -0.29861432
4.2684956 3.3476305 -0.25669259
4.7228603 3.121382 -0.25515866
-6.3170109 3.7737536 -0.27155
-2.0777988 3.8207939 -0.27815798
-1.9265342 3.6145611 -0.23971017
1.94344 3.5125442 -0.124936
2.2637055 3.549814 -0.23172832
2.7553186 3.6022604 -0.25000969
3.2460768 3.603153 -0.26166159
3.6787546 3.5482297 -0.2198267
-6.0958319 4.2435937 -0.26025531
-5.9779701 4.3876939 -0.47424099
-2.2325897 4.2616644 -0.25396898
-6.02421 4.5282941 -0.072950996
-5.8772559 4.7447414 -0.28744519
-2.2107122 4.8127289 -0.27970451
-6.0366669 5.2185273 -0.069427669
-5.823225 5.296288 -0.31214392
-2.0829175 5.1411691 -0.075508505
-1.8006266 5.2898273 -0.27502099
-5.7042336 5.6755939 -0.22748518
-5.2509079 5.8759575 -0.24361743
-4.8917451 5.987319 -0.31366348
-4.0478802 5.989594 -0.37564099
-3.7611599 5.9781742 -0.36347002
-1.7421691 5.7523212 -0.15053283
-1.3544992 5.8187366 -0.38226455
-4.6964393 6.0308537 -0.201019
-4.2778096 6.0347757 -0.24078725
-3.756314 6.0179796 -0.12552242
-3.2391145 6.1679435 -0.24235313
-2.8135674 6.4132948 -0.21412557
-2.2111657 6.3517656 -0.047426712
-1.7621815 6.2735729 -0.25311783
-1.1998277 6.1996603 -0.40782988
-0.91522998 6.2831941 -0.484561
-2.6808815 6.6074772 -0.36831436
-2.2518396 6.7018824 -0.27426037
-1.7522198 6.7304564 -0.34048051
-1.4774899 6.8544941 -0.44997099
-2.0908301 7.0192938 -0.49542099
-1.787015 7.022469 -0.44952351
-1.4749 7.0035939 -0.47362101
-4.1757946 -6.0741391 0.20657992
-3.7637825 -6.1345482 0.25902587
-3.2408237 -6.1580243 0.21080115
-2.7941227 -6.1651764 0.28149819
-2.3993599 -6.0484657 0.092969
-1.118592 -6.0782385 0.092272997
-0.75278139 -6.1266541 0.25391185
-0.40352499 -6.1161509 0.28947902
2.7750151 -6.0653234 0.25512898
3.1261985 -6.1189103 0.24473473
4.9299402 -6.0004959 0.083458997
5.2284865 -6.0562396 0.21683338
5.6658154 -6.0266628 0.27601454
-4.2497964 -5.7880144 0.22595362
-3.9456301 -5.5547361 0.459629
-2.1837201 -5.9306359 0.030828999
-1.51799 -5.951766 0.0049990001
-1.2112399 -5.9408774 0.18665329
-0.96373498 -5.9634309 0.399014
-0.042649999 -5.7312894 0.287579
0.25094503 -5.7203794 0.24719
0.7521106 -5.7019176 0.24199899
1.2348154 -5.6921468 0.26547173
1.7460166 -5.6809454 0.24396302
2.2867277 -5.7281346 0.2407447
2.5564861 -5.9366841 0.27628899
4.9167252 -5.9451089 0.21510899
5.0156698 -5.965426 0.43664899
5.8967977 -5.9855785 0.2180465
6.218904 -5.8815336 0.25193357
6.780899 -5.6108561 0.28608999
-4.1016898 -5.3838191 0.114524
-3.7878745 -5.2124233 0.25245956
-3.346576 -5.0753202 0.3924447
7.2449737 -5.3845205 0.25366539
7.6538415 -5.1343307 0.227439
-3.5088301 -4.9157758 0.0057689999
-3.1894011 -4.8861399 0.18069775
-2.7995648 -4.6664858 0.28659663
7.9479041 -4.895648 0.22599301
8.2032442 -4.6581054 0.22510099
-2.694263 -4.2149038 0.21730757
-2.4541998 -4.2350125 0.48766899
8.4323092 -4.358583 0.223701
8.5341797 -4.1389918 0.22297902
-3.7347369 -3.582732 0.26911101
-3.2364902 -3.7197335 0.24565825
-2.7776415 -3.8807528 0.28188747
8.6637373 -3.7803531 0.22202501
-4.5958147 -3.1028633 0.23322524
-4.2624459 -3.3654089 0.24712607
-3.9447601 -3.4841061 0.0064790002
8.7582178 -3.2177505 0.2202915
-5.1105509 -2.6063662 0.24703102
-4.8266468 -2.8659632 0.27457207
8.6727476 -2.703527 0.21772733
-5.533668 -2.0358539 0.258277
-5.3905153 -2.3347063 0.2715449
7.4083338 -2.1416333 0.23709275
7.7494879 -2.1881068 0.2669583
8.2565966 -2.2584281 0.25770012
8.5459118 -2.4420381 0.28789699
-5.7552061 -1.7457906 0.25691497
7.3236294 -1.7751622 0.21777569
-6.0166664 -1.0751076 0.28658399
-5.9736938 -1.3348688 0.24091257
7.2940459 -1.2477906 0.22265351
-6.208271 -0.71537286 0.24122584
7.2528677 -0.76048195 0.221883
-6.2470064 -0.24860975 0.26187712
7.2009521 -0.27160597 0.22146551
-6.2523413 0.24188749 0.24682751
6.9850101 0.48929399 0.37109399
7.0735927 0.2600612 0.2047468
-6.1515956 0.777879 0.24409597
6.8770614 0.76590741 0.22146231
-6.0289526 1.112169 0.2919665
-5.9630084 1.2959666 0.22291265
6.4840236 1.4762274 0.3644557
6.6417398 1.2299098 0.21034794
-6.532095 1.945394 0.38836902
-6.2632103 1.7125884 0.22332233
6.2942619 1.7382044 0.25343689
-6.5986786 2.2811637 0.23593649
5.8166952 2.3333821 0.23602724
6.0533228 2.0658441 0.25404149
-6.6449289 2.753494 0.23311166
5.2692266 2.8148983 0.25823495
5.5818677 2.5625367 0.24988472
-6.5949783 3.2304637 0.23085651
-1.62257 3.414144 0.26347902
-1.2496147 3.3119295 0.23766899
-0.74033797 3.197062 0.26051059
-0.25384814 3.0649629 0.26158527
0.23638153 3.1242399 0.24911898
0.75511068 3.2625725 0.23507616
1.2648979 3.3958473 0.25620633
1.6445365 3.4811106 0.19741236
4.2480989 3.3866892 0.24936442
4.7664342 3.1375124 0.24670447
-6.5444703 3.5999341 0.309091
-6.4128098 3.8366737 0.20077899
-2.0446882 3.9056442 0.200399
-1.8730451 3.6629298 0.25849041
1.8594086 3.5202816 0.27606151
2.2352436 3.5791149 0.27007043
2.738205 3.6309295 0.24853782
3.2423294 3.6422315 0.25572339
3.7376158 3.5657606 0.25757459
-6.2218652 4.2578869 0.22605832
-2.1744964 4.2645044 0.24504998
-6.164474 4.739974 0.223437
-2.3076787 4.7995076 0.24477766
-6.2523451 5.2883987 0.22427452
-2.2757087 5.2708998 0.248634
-6.1057782 5.6404371 0.31475186
-5.7656183 5.7889628 0.224289
-5.3376689 5.9534693 0.260014
-2.6426611 5.8677492 0.39439234
-2.2406075 5.752883 0.18525784
-5.086082 6.0207739 0.30343699
-4.7408299 6.0664368 0.2494954
-4.2371283 6.0788817 0.25562587
-3.7470737 6.0613503 0.24015398
-3.2539222 6.0682673 0.26573169
-2.8061814 6.1257863 0.18447208
-2.2958932 6.1840267 0.066262335
-3.7123792 -6.0862188 0.70862824
-3.2574894 -6.14396 0.7388671
-2.823257 -6.1724081 0.77850401
-0.72424227 -6.1134534 0.74225593
-0.40072 -6.1147995 0.74030066
2.8261201 -6.0551863 0.73498446
3.220257 -6.0995975 0.76744205
3.63588 -6.042726 0.95413399
4.9622698 -6.0018759 0.82320899
5.2636957 -6.0402131 0.73686814
5.5651398 -6.0156107 0.68483901
-4.0377951 -5.8900361 0.55774903
-3.772922 -5.763525 0.73541421
-3.42553 -5.5795288 0.92985898
-0.87924999 -5.9651012 0.598104
-0.12985501 -5.8648558 0.84168398
0.24931785 -5.7265601 0.71718484
0.73447847 -5.7064857 0.77234828
1.2602556 -5.6949549 0.72916126
1.7278692 -5.6856127 0.77533036
2.274719 -5.707478 0.71685427
2.5962455 -5.8790617 0.81725013
4.85992 -5.9088993 0.71829063
5.2545547 -5.9944906 0.784729
5.789084 -5.9398479 0.77100194
6.2384057 -5.804739 0.72171068
6.6942277 -5.613565 0.75072801
-3.6144822 -5.3655062 0.575257
-3.2336397 -5.2741232 0.73430955
-2.804539 -5.0981588 0.81471097
6.9328699 -5.4916511 0.853064
7.2285643 -5.3569856 0.76569694
7.6453886 -5.1163402 0.739245
-2.6380434 -4.867991 0.62518734
-2.409461 -4.6597557 0.77648729
7.9349394 -4.8994861 0.72591895
8.1904783 -4.6629734 0.72491002
-2.3572698 -4.2179542 0.77148521
8.4250412 -4.3594904 0.72389001
8.5296278 -4.1395502 0.72349298
-3.6964431 -3.5688992 0.71045476
-3.2559643 -3.6835732 0.75946009
-2.5262101 -3.9107759 0.97201902
-2.4640675 -3.9397686 0.65195149
8.6499138 -3.7814231 0.72273302
-4.5887637 -3.0933983 0.73896897
-4.2524333 -3.3345461 0.74890471
-3.899966 -3.462038 0.89221704
8.7373552 -3.2193921 0.72237897
-5.1275377 -2.583761 0.73680997
-4.8423715 -2.8107183 0.76043826
8.6679907 -2.7107775 0.73749602
-5.508935 -2.0369358 0.60851902
-5.374486 -2.286525 0.77396905
7.3916206 -2.168087 0.75861204
7.7648206 -2.1918323 0.75558895
8.274579 -2.2699592 0.75426215
8.5576677 -2.4522781 0.64820302
-5.7279019 -1.7739487 0.76814777
7.3045201 -1.7325684 0.6889773
-6.0044065 -1.0966877 0.71986729
